-46.6094 -23.5849 774.97 978636.66
-46.6095 -23.5834 736.51 978645.30
-46.6270 -23.6502 794.05 978638.26
-46.6100 -23.5567 759.50 978627.31
-46.6610 -23.6247 790.00 978635.78
-46.6165 -23.5332 773.20 978635.63
-46.6365 -23.6332 794.90 978636.19
-46.3315 -23.5299 758.33 978633.13
-46.7749 -23.5848 789.12 978635.13
-46.6499 -23.5999 779.46 978638.41
-46.6149 -23.5898 774.97 978637.09
-46.2199 -23.5399 736.30 978645.00
-46.9265 -23.6082 853.54 978616.03
-46.1832 -23.5199 744.74 978640.40
-46.7349 -23.5099 743.62 978637.19
-46.7799 -23.4532 766.67 978628.70
-46.4832 -23.4332 825.00 978626.81
-46.5464 -23.7300 767.23 978656.90
-46.5423 -23.8043 748.44 978670.95
-46.3497 -23.6746 766.74 978656.13
-46.4120 -23.7082 763.22 978659.03
-46.4508 -23.6558 846.13 978632.66
-46.5210 -23.6444 783.30 978644.25
-46.5727 -23.6076 799.40 978639.31
-46.5712 -23.6540 753.04 978649.85
-46.6609 -23.6246 790.01 978635.47
-46.7007 -23.6171 729.82 978650.38
-46.7311 -23.6142 813.01 978632.82
-46.7012 -23.5719 726.19 978644.56
-46.7187 -23.5659 744.57 978640.11
-46.7262 -23.5136 720.53 978641.76
-46.6891 -23.5072 728.39 978638.45
-46.6261 -23.4894 802.71 978621.89
-46.6249 -23.5184 721.82 978639.89
-46.5871 -23.5675 798.01 978629.06
-46.4551 -23.5371 751.27 978636.96
-46.4092 -23.5444 761.64 978639.34
-46.3448 -23.5284 757.26 978640.72
-46.2705 -23.5407 736.88 978649.15
-46.2441 -23.5425 737.41 978643.80
-46.1949 -23.5210 743.16 978640.29
-46.3482 -23.4823 759.89 978634.75
-46.7006 -23.7001 785.07 978641.88
-46.7251 -23.7807 741.77 978660.95
-46.7306 -23.8277 774.66 978662.06
-46.8130 -23.8274 746.92 978663.25
-46.8490 -23.7170 906.33 978616.81
-46.8521 -23.6486 778.06 978637.56
-46.9524 -23.6174 853.12 978615.86
-46.7657 -23.3956 797.08 978624.53
-46.3914 -23.8472 3.68 978816.88
-46.6291 -23.6269 749.49 978646.16
-46.6274 -23.6124 745.58 978646.86
-46.6257 -23.5814 790.87 978632.69
-46.6429 -23.5761 798.06 978630.55
-46.6394 -23.5622 752.54 978634.99
-46.6386 -23.5477 734.52 978639.13
-46.6547 -23.5597 782.84 978629.25
-46.6799 -23.5834 732.41 978645.59
-46.6784 -23.6201 740.59 978646.29
-46.7061 -23.6531 754.20 978646.61
-46.6839 -23.6509 793.49 978638.45
-46.6782 -23.6747 764.53 978645.99
-46.6587 -23.6652 763.11 978645.75
-46.6811 -23.5479 822.42 978621.26
-46.6392 -23.5167 722.91 978640.74
-46.6532 -23.5152 720.74 978641.30
-46.6504 -23.5226 721.67 978641.78
-46.6671 -23.4739 745.32 978634.70
-46.6782 -23.4826 728.76 978638.51
-46.6992 -23.4956 757.14 978633.93
-46.7126 -23.4837 765.79 978630.25
-46.7397 -23.4772 787.68 978625.39
-46.6967 -23.4537 796.37 978624.47
-46.7254 -23.4317 822.71 978620.20
-46.7174 -23.3974 816.33 978619.16
-46.6321 -23.3799 798.80 978620.79
-46.6192 -23.4724 805.94 978620.81
-46.6132 -23.5004 730.54 978636.41
-46.6349 -23.5882 806.53 978630.24
-46.6387 -23.5671 793.82 978629.60
-46.6361 -23.5567 765.97 978633.00
-46.5671 -23.5386 741.79 978636.32
-46.5592 -23.5391 740.82 978637.32
-46.5632 -23.5314 733.29 978637.50
-46.5584 -23.5217 729.13 978638.91
-46.5906 -23.5287 723.69 978640.22
-46.6106 -23.5216 722.66 978641.13
-46.5669 -23.4704 730.71 978634.11
-46.5307 -23.4657 773.62 978626.10
-46.5367 -23.4567 769.06 978623.25
-46.5467 -23.4427 795.07 978620.35
-46.5644 -23.4512 742.56 978633.07
-46.6314 -23.6752 801.97 978640.09
-46.5923 -23.6608 747.37 978650.81
-46.5795 -23.6681 744.96 978651.96
-46.5716 -23.6721 762.66 978650.31
-46.5597 -23.6879 760.31 978652.79
-46.5352 -23.7046 768.92 978654.19
-46.5268 -23.6948 818.45 978643.55
-46.5041 -23.6993 776.93 978655.11
-46.5004 -23.7098 789.11 978654.34
-46.5226 -23.7408 793.86 978653.79
-46.5609 -23.7189 771.58 978651.22
-46.5433 -23.7260 802.82 978649.15
-46.5747 -23.7544 790.23 978651.29
-46.5907 -23.7646 767.57 978657.51
-46.6111 -23.7717 773.49 978657.29
-46.5964 -23.7877 755.50 978663.95
-46.5078 -23.8108 761.68 978671.56
-46.5189 -23.7886 773.79 978664.43
-46.5337 -23.7688 754.09 978663.70
-46.4669 -23.7074 797.68 978645.53
-46.4816 -23.6984 783.35 978651.16
-46.4596 -23.6782 778.97 978650.05
-46.4359 -23.6774 788.92 978646.69
-46.4459 -23.6766 785.36 978648.13
-46.4244 -23.6684 778.04 978647.14
-46.4036 -23.7082 756.31 978661.49
-46.3719 -23.6846 775.29 978655.13
-46.3372 -23.6611 762.82 978655.38
-46.3252 -23.6492 768.98 978652.56
-46.3164 -23.6184 755.02 978651.51
-46.3037 -23.5744 751.22 978650.84
-46.3072 -23.5561 755.49 978647.80
-46.3126 -23.5377 737.73 978646.26
-46.6042 -23.6319 811.63 978633.39
-46.6066 -23.6241 789.04 978636.95
-46.6104 -23.6161 758.23 978643.25
-46.6139 -23.6356 822.09 978631.47
-46.6194 -23.6202 788.37 978637.44
-46.6177 -23.5847 734.68 978646.29
-46.6071 -23.5736 728.02 978646.47
-46.6119 -23.5916 778.45 978636.89
-46.5902 -23.5814 739.93 978643.13
-46.5806 -23.5856 741.16 978644.25
-46.5829 -23.5766 754.35 978639.70
-46.5827 -23.6014 732.24 978647.57
-46.5754 -23.6014 732.21 978647.25
-46.5704 -23.5941 790.56 978633.78
-46.5682 -23.5859 763.85 978637.94
-46.5707 -23.5762 759.20 978638.25
-46.5659 -23.5691 789.28 978630.51
-46.5404 -23.5602 783.31 978632.14
-46.5314 -23.5579 775.46 978632.14
-46.5236 -23.5576 748.37 978639.19
-46.5402 -23.5699 798.95 978629.65
-46.5402 -23.5787 799.54 978629.74
-46.5561 -23.5739 786.86 978631.13
-46.5592 -23.5924 757.45 978638.38
-46.5567 -23.6009 781.76 978634.41
-46.5701 -23.6024 733.44 978647.30
-46.6129 -23.6529 799.96 978637.38
-46.6019 -23.6549 757.58 978646.35
-46.5611 -23.6464 779.11 978643.93
-46.5511 -23.6439 799.34 978640.47
-46.5512 -23.6164 750.87 978643.13
-46.5501 -23.6091 739.82 978644.38
-46.5259 -23.6212 798.29 978639.40
-46.5169 -23.6199 775.14 978644.88
-46.4896 -23.6469 785.33 978644.19
-46.5234 -23.6304 760.09 978647.26
-46.5362 -23.6464 755.02 978649.66
-46.5391 -23.6692 804.16 978643.18
-46.5334 -23.6796 822.77 978639.88
-46.5006 -23.6677 765.95 978651.81
-46.5107 -23.6854 810.27 978644.79
-46.5712 -23.6541 753.04 978649.69
-46.4731 -23.6326 791.25 978644.26
-46.4617 -23.6269 833.46 978633.54
-46.4531 -23.6449 798.18 978641.82
-46.4231 -23.6187 805.87 978639.22
-46.4069 -23.6124 826.06 978642.88
-46.4189 -23.5934 801.66 978637.90
-46.3937 -23.5724 790.11 978639.25
-46.3637 -23.5701 761.14 978645.96
-46.3334 -23.5612 767.90 978644.47
-46.3401 -23.5691 777.77 978643.63
-46.3622 -23.5984 759.50 978646.49
-46.4834 -23.6244 772.26 978646.56
-46.4869 -23.6389 821.84 978636.94
-46.4702 -23.6001 789.21 978640.95
-46.4512 -23.5947 769.14 978646.00
-46.4891 -23.5896 760.61 978639.64
-46.4697 -23.5704 799.62 978633.50
-46.4621 -23.5502 755.30 978637.99
-46.4922 -23.5526 761.37 978637.38
-46.4851 -23.5324 769.03 978632.66
-46.4682 -23.5074 744.33 978634.56
-46.4319 -23.5037 738.52 978637.84
-46.4657 -23.5309 789.77 978630.78
-46.4266 -23.5374 762.68 978637.01
-46.4172 -23.5281 802.74 978629.09
-46.3837 -23.5547 806.13 978634.07
-46.3674 -23.5411 756.03 978642.14
-46.3411 -23.5461 743.67 978647.34
-46.3256 -23.5282 737.40 978646.24
-46.3384 -23.5236 743.84 978643.15
-46.3447 -23.5284 757.26 978640.84
-46.3671 -23.5269 778.50 978635.11
-46.3974 -23.5012 769.66 978631.90
-46.3859 -23.5202 809.95 978626.66
-46.4127 -23.5032 766.22 978633.00
-46.4041 -23.4946 737.36 978637.70
-46.4199 -23.4934 740.28 978635.79
-46.4326 -23.4699 749.10 978633.71
-46.4364 -23.4859 761.33 978637.31
-46.5274 -23.4784 724.49 978634.39
-46.4876 -23.4842 727.79 978637.76
-46.5169 -23.4686 738.18 978632.57
-46.5251 -23.4727 727.60 978634.28
-46.5437 -23.4942 723.63 978638.32
-46.5549 -23.5021 752.50 978633.24
-46.4716 -23.4577 769.52 978627.03
-46.4466 -23.4582 746.35 978631.40
-46.4202 -23.4456 763.16 978628.95
-46.4101 -23.4347 791.27 978622.88
-46.4259 -23.4232 764.09 978627.25
-46.4331 -23.4072 747.57 978625.50
-46.4542 -23.4057 751.64 978628.07
-46.4654 -23.4159 743.38 978626.09
-46.5026 -23.4234 744.39 978629.56
-46.5354 -23.4339 759.30 978629.16
-46.5429 -23.4074 749.44 978632.29
-46.5216 -23.3969 757.56 978630.63
-46.5676 -23.4379 751.80 978632.07
-46.5817 -23.6491 768.03 978645.36
-46.4294 -23.6557 798.19 978643.88
-46.4079 -23.6531 776.23 978646.90
-46.3996 -23.6266 777.56 978644.40
-46.3794 -23.6324 775.30 978647.31
-46.3497 -23.6227 780.27 978645.00
-46.3086 -23.5852 760.98 978649.18
-46.2969 -23.6207 752.59 978659.44
-46.3442 -23.6434 773.32 978649.69
-46.3709 -23.6526 795.10 978645.15
-46.3967 -23.6809 783.91 978650.29
-46.3916 -23.7287 754.50 978665.65
-46.3829 -23.7441 757.29 978666.96
-46.3644 -23.7456 762.44 978666.50
-46.4457 -23.7492 755.89 978665.81
-46.6099 -23.5517 733.50 978639.47
-46.5686 -23.5244 722.96 978641.31
-46.5796 -23.4851 770.66 978623.55
-46.5976 -23.4772 794.58 978622.66
-46.6039 -23.4632 746.60 978632.97
-46.5981 -23.4464 788.38 978624.72
-46.5874 -23.4326 793.97 978623.95
-46.5794 -23.4052 772.95 978626.21
-46.4719 -23.8322 743.15 978681.13
-46.4599 -23.8116 751.38 978676.99
-46.3527 -23.7694 760.88 978670.06
-46.2981 -23.7757 820.76 978650.34
-46.2786 -23.7599 823.85 978650.50
-46.2661 -23.7474 786.97 978657.11
-46.2477 -23.7561 857.47 978640.56
-46.2442 -23.6951 761.33 978660.65
-46.2247 -23.6876 767.46 978656.39
-46.1923 -23.6732 754.66 978653.44
-46.1837 -23.6754 770.97 978649.13
-46.1911 -23.7026 777.62 978651.72
-46.1829 -23.7373 776.95 978651.56
-46.1657 -23.7421 722.35 978669.00
-46.2074 -23.7972 742.60 978668.66
-46.2279 -23.7836 903.74 978634.59
-46.2846 -23.7059 765.38 978663.75
-46.2809 -23.7211 764.06 978664.59
-46.2941 -23.7121 769.72 978664.75
-46.3002 -23.7254 772.85 978664.04
-46.3087 -23.7359 774.97 978664.16
-46.2942 -23.6741 763.81 978661.71
-46.2804 -23.6614 790.32 978654.51
-46.2721 -23.6541 790.41 978652.20
-46.2574 -23.6161 760.05 978653.78
-46.2436 -23.6457 760.96 978657.84
-46.2411 -23.6792 783.60 978655.29
-46.2441 -23.6641 798.79 978650.50
-46.2686 -23.7339 784.91 978658.81
-46.2169 -23.7287 797.66 978648.19
-46.1722 -23.6219 747.78 978655.31
-46.1914 -23.5374 752.76 978652.35
-46.2247 -23.6877 766.10 978656.96
-46.2234 -23.6731 796.91 978650.63
-46.1637 -23.6049 770.38 978650.00
-46.2536 -23.5724 746.80 978651.44
-46.2419 -23.5837 782.57 978644.76
-46.2359 -23.5952 801.57 978641.60
-46.2331 -23.6087 784.25 978646.89
-46.2577 -23.5437 737.02 978646.84
-46.2541 -23.5581 739.84 978650.46
-46.2979 -23.5277 735.30 978644.51
-46.2796 -23.5044 803.59 978628.25
-46.3306 -23.4974 732.32 978642.38
-46.3279 -23.4962 733.99 978641.66
-46.3104 -23.5091 740.02 978642.80
-46.3049 -23.5267 733.64 978645.80
-46.6706 -23.6501 746.20 978647.30
-46.6897 -23.6662 754.86 978647.35
-46.7166 -23.6731 737.52 978652.15
-46.7141 -23.6927 740.05 978651.94
-46.7009 -23.7267 769.15 978649.25
-46.7026 -23.7429 773.01 978650.69
-46.6716 -23.7467 750.97 978656.94
-46.6674 -23.7682 764.40 978654.31
-46.6951 -23.7617 755.40 978656.06
-46.7096 -23.7829 781.73 978652.47
-46.7426 -23.7682 796.24 978649.69
-46.7521 -23.8252 775.52 978660.93
-46.7679 -23.8224 767.88 978662.32
-46.7836 -23.8404 751.59 978667.41
-46.7306 -23.8276 774.58 978662.13
-46.5778 -23.8376 778.87 978668.84
-46.5888 -23.8386 750.20 978675.72
-46.6481 -23.7694 766.88 978648.13
-46.6459 -23.7796 763.11 978657.36
-46.6407 -23.8076 769.41 978661.66
-46.6642 -23.8111 761.95 978665.57
-46.6882 -23.7929 798.91 978648.31
-46.6936 -23.8101 802.50 978653.94
-46.4071 -23.4199 770.09 978626.03
-46.2284 -23.5197 751.24 978639.38
-46.2207 -23.5539 769.88 978637.61
-46.1987 -23.5554 789.34 978639.35
-46.1739 -23.5764 769.07 978648.18
-46.8006 -23.8139 742.23 978664.63
-46.8305 -23.8158 742.61 978661.85
-46.8447 -23.8013 794.00 978649.04
-46.7365 -23.6314 750.97 978647.25
-46.7632 -23.6224 782.98 978639.31
-46.8090 -23.6285 797.03 978634.80
-46.8020 -23.6857 831.53 978632.49
-46.8164 -23.6756 773.64 978643.19
-46.8494 -23.7463 925.99 978616.28
-46.8631 -23.7815 842.16 978635.41
-46.9258 -23.8270 802.92 978648.55
-46.4758 -23.4387 760.25 978625.89
-46.1594 -23.5297 742.92 978645.24
-46.2253 -23.4948 913.33 978603.74
-46.6269 -23.6847 785.30 978643.21
-46.6932 -23.6613 752.73 978646.95
-46.7546 -23.6859 751.15 978652.47
-46.7730 -23.7260 747.49 978655.15
-46.7725 -23.7454 769.59 978651.75
-46.7877 -23.7661 738.38 978660.45
-46.8381 -23.7617 787.76 978647.57
-46.8724 -23.7930 931.12 978618.00
-46.9480 -23.8061 762.55 978652.19
-46.9825 -23.8288 782.58 978652.13
-46.9106 -23.7839 845.99 978636.54
-46.9313 -23.7755 886.79 978625.90
-46.9701 -23.7496 946.69 978611.40
-46.9180 -23.7539 880.00 978625.35
-47.0101 -23.7002 946.66 978599.54
-46.9744 -23.6193 929.55 978600.69
-46.9526 -23.6080 885.33 978609.29
-46.9802 -23.5972 923.91 978600.19
-46.9552 -23.6347 776.44 978633.55
-46.9568 -23.6497 872.48 978614.47
-46.9477 -23.6590 893.74 978609.86
-46.9153 -23.6493 892.77 978609.74
-46.9005 -23.6455 806.72 978627.69
-46.8959 -23.6850 830.60 978628.00
-46.9005 -23.7476 805.03 978641.19
-46.8930 -23.7262 791.88 978641.32
-46.7922 -23.6124 754.35 978642.66
-46.8201 -23.6141 842.62 978621.97
-46.8363 -23.5775 767.02 978635.50
-46.8452 -23.6095 836.61 978622.01
-46.8798 -23.6290 796.23 978629.82
-46.8763 -23.5999 755.44 978638.01
-46.8921 -23.6174 771.66 978634.11
-46.9023 -23.5802 781.45 978629.07
-46.9276 -23.5645 748.69 978632.50
-46.9339 -23.5484 764.89 978627.65
-46.9638 -23.5421 759.36 978627.84
-46.9833 -23.5544 803.66 978618.81
-46.9934 -23.5707 803.08 978620.35
-46.9832 -23.5164 807.27 978623.55
-46.7498 -23.5992 740.12 978645.28
-46.7595 -23.5857 747.32 978640.44
-46.8016 -23.5549 808.78 978624.56
-46.8336 -23.5467 785.11 978628.16
-46.8594 -23.5693 827.89 978620.59
-46.8835 -23.5324 789.32 978623.44
-46.9287 -23.5165 753.30 978629.50
-46.9530 -23.5071 888.35 978603.05
-46.9742 -23.4835 996.99 978580.44
-46.9442 -23.4881 1003.85 978578.95
-46.9178 -23.4902 995.99 978581.50
-46.8900 -23.5029 836.19 978614.61
-46.9888 -23.4957 846.95 978616.07
-47.0011 -23.4609 816.69 978619.19
-46.9136 -23.4457 722.61 978637.19
-46.9668 -23.4026 714.99 978641.43
-46.9867 -23.4192 753.50 978631.00
-47.0016 -23.4008 711.60 978640.72
-47.0035 -23.3785 790.40 978621.69
-46.9121 -23.3920 702.49 978643.75
-46.8903 -23.4070 720.41 978639.93
-46.8753 -23.4377 737.32 978636.64
-46.7619 -23.5193 735.07 978638.22
-46.7775 -23.5099 732.50 978637.82
-46.8110 -23.5100 742.34 978634.06
-46.8246 -23.4674 769.16 978628.38
-46.8215 -23.4384 739.24 978633.60
-46.8593 -23.3793 706.14 978638.84
-46.6610 -23.6024 754.73 978642.74
-46.7111 -23.5410 752.69 978636.99
-46.6805 -23.5238 728.64 978638.45
-46.7242 -23.5280 735.42 978639.07
-46.7559 -23.4939 731.88 978639.94
-46.7786 -23.4630 823.10 978619.09
-46.7542 -23.4088 766.20 978632.31
-46.7626 -23.3854 722.70 978634.34
-46.7412 -23.4591 820.24 978617.22
-46.3634 -23.4469 747.52 978636.25
-46.3249 -23.3712 803.78 978620.32
-46.3286 -23.4281 746.28 978636.99
-46.3088 -23.4437 751.42 978636.32
-46.2806 -23.4596 730.91 978640.93
-46.2539 -23.4416 715.29 978643.99
-46.2827 -23.4185 728.55 978641.22
-46.2843 -23.3733 758.91 978632.13
-46.9841 -23.4219 576.66 978668.57
-46.9191 -23.6046 853.12 978615.86
-47.0149 -23.6413 938.00 978599.95
-46.9321 -23.8413 761.27 978658.44
-46.9238 -23.8180 746.92 978658.45
-46.9143 -23.7977 820.58 978641.90
-46.9141 -23.7752 812.45 978641.39
-46.9010 -23.7546 811.90 978639.60
-46.8932 -23.7291 800.32 978639.81
-46.8768 -23.7110 789.74 978640.78
-46.1890 -23.5222 749.03 978639.40
-46.1928 -23.5355 752.80 978642.95
-46.1829 -23.5498 787.03 978639.51
-46.1919 -23.5680 748.46 978650.94
-46.1812 -23.5782 763.60 978649.50
-46.1720 -23.5916 778.57 978648.65
-46.1707 -23.6156 752.37 978654.19
-46.1719 -23.6325 748.68 978654.74
-46.1654 -23.6472 746.63 978653.75
-46.1794 -23.6575 774.84 978647.56
-46.1845 -23.6737 772.41 978648.47
-46.8514 -23.6510 803.72 978631.78
-46.9193 -23.6033 854.05 978615.25
-46.1791 -23.3695 643.20 978660.72
-46.2190 -23.3914 649.00 978660.00
-46.2302 -23.4108 654.00 978658.32
-46.3030 -23.4591 774.00 978633.78
-46.2447 -23.4649 747.00 978638.57
-46.2247 -23.4519 748.00 978637.64
-46.2288 -23.4429 673.00 978653.72
-46.2037 -23.4930 898.00 978608.94
-46.1600 -23.4555 734.00 978640.06
-46.1640 -23.4234 642.00 978658.91
-46.1619 -23.4083 623.00 978664.32
-46.2655 -23.4389 710.80 978645.69
-46.2081 -23.4589 703.00 978647.36
-46.1964 -23.4354 708.00 978646.19
-46.2380 -23.4539 717.00 978645.21
-46.2480 -23.4378 692.20 978649.94
-46.2804 -23.4459 739.00 978640.49
-46.2193 -23.4212 623.00 978663.16
-46.2016 -23.4218 624.00 978661.81
-46.2056 -23.4088 646.40 978659.47
-46.1850 -23.3936 639.00 978661.25
-46.1693 -23.3940 684.40 978653.31
-46.2046 -23.3809 664.00 978656.82
-46.2386 -23.3925 617.20 978665.47
-46.2634 -23.4831 790.00 978629.79
-46.3407 -23.4663 746.30 978638.54
-46.3246 -23.4426 743.00 978639.54
-46.3233 -23.3994 837.00 978616.81
-46.3186 -23.4007 799.00 978631.31
-46.3714 -23.4141 759.00 978632.31
-46.2954 -23.4058 789.80 978628.99
-46.2692 -23.3853 675.30 978652.18
